-161 273 851
-160 272 845
-159 271 840
-158 270 834
-157 268 829
-173 296 913
-171 295 907
-170 293 901
-169 292 895
-174 302 923
-173 300 917
-172 299 911
-171 297 904
-164 285 865
-163 284 860
-162 282 854
-161 281 848
-160 280 843
-159 278 838
-194 344 1032
-193 342 1024
-191 340 1016
-177 313 935
-175 311 928
-174 310 922
-173 308 916
-167 296 880
-166 295 874
-174 311 920
-164 292 863
-163 291 857
-162 289 852
-177 320 938
-176 318 931
-175 316 925
-179 324 946
-177 322 939
-176 321 933
-175 319 926
-169 308 894
-168 307 888
-167 305 882
-166 304 877
-165 302 871
-164 301 865
-163 299 860
-162 298 854
-161 297 849
-161 296 847
-126 229 655
-69 117 338
-109 58 591
-109 59 590
-128 78 646
-139 82 677
-150 63 581
-126 79 635
-124 78 624
-103 59 484
-107 62 505
-114 77 597
-107 76 579
-109 76 582
-96 75 519
-96 75 516
-102 81 551
-117 94 638
-116 94 635
-115 94 631
-96 64 446
-120 84 573
-99 91 578
-87 88 548
-196 214 1303
-176 200 1172
-283 221 1386
-170 195 1126
-167 193 1109
-130 97 614
-164 191 1090
-163 190 1080
-162 189 1071
-162 189 1068
-151 181 994
-127 121 694
-126 121 690
-211 145 894
-122 118 668
-124 120 678
-123 120 675
-123 119 671
-122 119 667
-131 129 722
-124 122 681
-125 123 684
-124 123 680
-124 123 677
-128 128 701
-127 128 697
-124 125 679
-126 127 690
-125 127 686
-125 126 682
-124 126 678
-123 126 675
-121 123 658
-118 120 641
-166 175 924
-130 131 698
-97 96 511
-125 129 676
-123 128 666
-126 131 680
-125 131 676
-127 133 687
-126 133 683
-123 132 674
-118 126 640
-117 125 637
-117 125 634
-126 136 687
-125 136 683
-124 135 677
-127 136 684
-130 139 696
-129 139 692
-131 142 703
-130 141 699
-129 141 695
-124 134 662
-123 134 658
-122 134 655
-114 124 606
-131 145 705
-130 145 701
-132 147 712
-132 147 708
-131 146 704
-133 149 715
-132 149 711
-131 148 707
-133 151 718
-133 151 714
-132 150 710
-124 141 664
-135 154 722
-134 153 718
-136 156 727
-135 155 722
-134 155 718
-136 158 730
-135 157 725
-135 157 721
-137 160 733
-136 159 728
-135 159 724
-127 149 679
-127 149 675
-83 93 427
-61 65 301
-137 163 735
-136 163 730
-138 166 742
-138 165 738
-137 165 733
-133 161 714
-138 167 741
-137 167 736
-130 157 692
-129 157 688
-139 171 748
-143 176 769
-139 172 747
-139 171 743
-141 174 755
-140 174 750
-139 173 746
-134 168 723
-139 175 750
-139 175 746
-131 165 703
-130 164 699
-130 164 695
-141 180 761
-140 180 757
-140 179 752
-142 183 765
-141 182 760
-140 181 755
-137 177 735
-121 155 646
-134 174 721
-137 179 738
-62 72 302
-150 196 805
-234 314 1281
-214 303 1198
-138 186 741
-210 288 1142
-204 283 1118
-202 281 1108
-147 201 792
-146 200 787
-148 201 789
-147 200 784
-146 199 779
-145 198 774
-151 207 806
-150 206 801
-149 205 796
-142 195 756
-154 214 824
-153 213 819
-152 212 813
-151 211 808
-150 210 803
-149 209 798
-148 209 793
-148 208 788
-147 207 783
-152 216 816
-152 215 810
-144 205 769
-143 204 764
-172 248 925
-171 246 918
-169 245 911
-153 220 818
-152 219 813
-151 218 807
-150 217 802
-149 217 797
-155 226 831
-154 225 825
-153 224 820
-143 212 771
-143 211 766
-155 231 837
-149 226 816
-148 225 811
-147 224 806
-146 223 801
-145 223 796
-144 222 791
-143 221 786
-149 231 818
-148 230 813
-147 229 808
-140 217 767
-139 216 762
-139 216 758
-138 215 753
-235 380 1317
-147 232 805
-146 231 800
-145 230 795
-151 240 829
-150 239 823
-149 238 818
-142 226 776
-141 225 771
-140 224 766
-152 245 836
-151 244 831
-150 243 826
-150 242 820
-149 241 815
-148 240 810
-147 239 805
-153 250 839
-152 249 834
-151 247 828
-144 235 785
-143 234 780
-142 233 776
-141 232 771
-170 283 937
-169 282 930
-167 280 924
-151 251 825
-150 250 820
-149 248 815
-155 260 850
-154 259 844
-153 257 839
-145 244 795
-144 243 790
-144 242 785
-157 267 862
-156 265 856
-155 264 851
-154 263 845
-153 262 840
-152 260 834
-158 271 867
-157 270 861
-156 269 856
-149 256 813
-148 255 808
-147 254 803
-146 252 798
-145 251 793
-144 250 788
-244 417 1313
-241 414 1300
-239 410 1287
-166 281 881
-172 291 913
-171 290 907
-170 288 900
-162 275 858
-161 274 852
-160 273 847
-159 271 841
-158 270 836
-157 269 830
-173 297 915
-171 295 909
-170 294 902
-169 292 896
-174 302 925
-173 301 919
-172 299 912
-165 287 872
-164 285 867
-163 284 861
-162 283 855
-161 281 850
-160 280 844
-159 279 839
-194 345 1034
-193 343 1026
-172 305 911
-177 314 937
-175 312 930
-174 310 924
-173 309 917
-167 297 881
-166 295 875
-165 294 870
-164 293 864
-163 291 859
-162 290 853
-177 320 939
-176 318 933
-175 317 926
-179 325 948
-177 323 941
-176 321 935
-175 319 928
-169 309 895
-168 307 890
-167 306 884
-166 304 878
-165 303 872
-164 301 867
-163 300 861
-162 298 856
-161 297 850
-148 271 776
-99 175 502
-69 117 338
-85 57 538
-85 57 536
-163 65 650
-209 84 807
-139 79 669
-110 61 521
-106 59 497
-183 87 766
-93 61 480
-116 80 621
-115 80 618
-100 79 542
-96 75 517
-96 75 515
-95 75 513
-101 81 546
-115 94 632
-115 94 629
-78 63 414
-97 80 524
-105 92 591
-98 91 574
-194 213 1293
-176 200 1175
-175 199 1164
-173 198 1153
-150 171 990
-81 87 507
-163 190 1083
-162 189 1073
-128 121 696
-127 121 692
-127 121 688
-126 121 684
-125 120 681
-125 120 677
-124 120 673
-140 124 710
-144 128 729
-127 124 690
-126 124 686
-126 124 682
-130 129 708
-129 128 704
-126 125 685
-126 127 691
-125 127 687
-125 127 683
-124 126 679
-123 126 675
-117 119 639
-117 119 636
-95 95 510
-99 96 516
-126 130 681
-125 130 677
-127 132 687
-127 132 684
-126 131 680
-128 134 690
-127 134 686
-124 130 669
-120 127 648
-120 126 645
-119 126 641
-129 138 696
-128 137 692
-127 137 688
-129 139 699
-127 139 692
-127 138 688
-129 141 699
-128 141 695
-125 139 686
-120 133 653
-119 133 650
-119 132 647
-110 123 599
-127 144 695
-126 143 692
-128 146 702
-132 147 709
-131 147 705
-133 149 716
-132 149 712
-131 149 708
-133 151 719
-133 151 715
-132 151 711
-124 141 664
-134 153 720
-133 153 716
-134 155 725
-134 155 721
-133 154 717
-132 154 712
-134 157 724
-134 156 719
-136 159 731
-135 159 727
-134 158 722
-126 149 677
-126 148 674
-83 93 426
-61 65 301
-137 163 736
-136 163 731
-138 166 743
-138 166 739
-137 165 734
-133 161 715
-138 168 742
-137 167 737
-130 157 693
-129 157 689
-139 171 749
-143 176 770
-139 172 748
-139 171 744
-141 175 756
-140 174 751
-139 173 747
-136 169 726
-140 176 755
-140 176 750
-132 166 707
-131 165 703
-131 165 699
-149 190 802
-142 181 761
-141 180 756
-143 183 769
-142 183 764
-141 182 760
-138 177 739
-143 185 768
-122 156 646
-135 174 721
-146 191 786
-148 195 799
-61 72 300
-229 310 1262
-225 306 1241
-206 286 1130
-204 284 1120
-202 282 1110
-147 201 793
-146 200 788
-145 200 783
-144 199 778
-143 198 774
-143 197 769
-148 206 800
-147 205 795
-146 204 790
-152 213 823
-151 213 818
-150 212 813
-149 211 808
-148 210 802
-148 209 797
-147 208 792
-146 207 787
-145 207 782
-144 206 778
-150 215 810
-149 214 805
-142 203 764
-141 203 759
-169 246 917
-167 245 910
-166 243 904
-153 221 819
-152 220 814
-151 219 809
-150 218 804
-149 217 798
-155 227 832
-154 226 827
-153 225 821
-146 213 779
-145 213 774
-158 233 846
-157 232 840
-156 231 835
-155 230 829
-154 229 824
-153 228 819
-152 227 813
-151 226 808
-157 236 843
-156 235 837
-155 234 832
-148 222 788
-147 221 783
-146 220 778
-143 218 767
-235 381 1320
-147 232 807
-146 231 801
-145 230 796
-151 240 830
-150 239 825
-149 238 819
-142 226 777
-141 225 772
-140 224 768
-152 246 838
-151 245 832
-150 244 827
-150 242 822
-149 241 816
-148 240 811
-147 239 806
-153 250 841
-152 249 835
-151 248 830
-144 235 786
-143 234 782
-142 233 777
-171 285 946
-170 284 939
-169 282 932
-168 281 926
-151 251 827
-150 250 822
-149 249 816
-155 260 851
-154 259 846
-153 258 840
-145 244 796
-144 243 791
-144 242 786
-157 267 863
-156 266 858
-155 264 852
-154 263 846
-153 262 841
-152 261 836
-158 272 869
-157 270 863
-156 269 857
-149 256 814
-148 255 809
-147 254 804
-146 253 799
-145 252 795
-144 251 790
-224 399 1250
-222 396 1239
-220 393 1227
-155 272 850
-160 282 880
-159 281 874
-158 280 868
-151 267 828
-150 266 823
-149 265 818
-148 263 813
-148 262 808
-147 261 803
-160 288 882
-171 296 910
-170 294 904
-169 293 898
-174 303 927
-173 301 920
-172 300 914
-165 287 874
-164 286 868
-163 284 862
-162 283 857
-161 282 851
-160 280 846
-159 279 840
-194 345 1036
-193 343 1028
-172 305 913
-177 314 938
-175 312 932
-174 311 925
-173 309 919
-167 297 883
-166 296 877
-165 294 871
-164 293 866
-163 292 860
-162 290 854
-177 321 941
-176 319 934
-175 317 928
-179 325 949
-177 323 943
-176 322 936
-175 320 930
-169 309 897
-168 308 891
-167 306 885
-166 305 879
-165 303 874
-164 302 868
-163 300 863
-162 299 857
-161 297 852
-148 271 777
-99 175 502
-69 117 338
-102 58 578
-102 58 576
-179 67 688
-115 76 618
-120 81 647
-116 77 618
-130 79 649
-117 78 614
-110 88 603
-100 79 543
-100 79 541
-99 79 538
-95 75 513
-101 81 547
-80 62 425
-115 94 630
-114 94 627
-121 84 573
-108 93 596
-98 91 572
-190 211 1275
-190 211 1270
-173 198 1156
-172 197 1145
-165 189 1098
-154 177 1022
-116 131 756
-164 192 1095
-165 192 1091
-159 188 1057
-160 188 1054
-158 187 1045
-138 133 756
-127 121 689
-126 121 685
-125 120 682
-125 120 678
-124 120 674
-134 130 730
-126 123 688
-127 124 691
-126 124 687
-126 124 683
-130 129 709
-129 129 705
-127 126 689
-129 128 699
-128 128 695
-128 128 691
-127 127 688
-126 127 684
-120 120 647
-119 120 643
-97 96 515
-72 69 368
-127 130 686
-126 130 682
-125 130 678
-127 132 688
-127 132 685
-126 132 681
-128 134 691
-127 134 687
-124 131 670
-120 127 649
-120 127 645
-119 126 642
-129 138 697
-128 137 693
-127 137 689
-129 140 700
-128 139 696
-128 139 692
-130 141 703
-129 141 699
-128 141 695
-123 134 661
-122 134 658
-121 134 654
-113 124 605
-130 145 704
-129 144 700
-131 147 711
-129 146 705
-129 146 701
-131 149 712
-130 148 707
-129 148 703
-131 151 714
-130 150 710
-130 150 706
-120 140 656
-129 152 710
-129 151 706
-130 154 715
-129 153 711
-129 153 707
-132 154 713
-134 157 725
-131 153 705
-136 160 732
-135 159 728
-134 159 724
-126 149 678
-126 149 674
-83 93 426
-61 65 301
-136 163 734
-135 163 730
-137 166 741
-136 165 737
-136 165 733
-138 168 744
-137 167 740
-136 167 736
-129 157 691
-128 157 687
-138 171 747
-142 176 768
-138 172 746
-137 171 742
-139 174 754
-140 174 753
-139 174 748
-135 169 728
-140 176 756
-138 175 748
-132 166 708
-131 165 704
-131 165 700
-149 190 803
-142 181 762
-141 180 758
-143 184 770
-142 183 766
-141 182 761
-141 182 756
-137 177 735
-142 184 764
-141 184 760
-115 147 609
-149 196 804
-148 195 799
-61 72 300
-146 193 789
-225 306 1241
-195 278 1096
-202 282 1113
-147 201 794
-146 201 789
-145 200 785
-144 199 780
-143 198 775
-143 198 770
-148 206 802
-147 205 797
-146 205 792
-152 214 825
-151 213 819
-150 212 814
-149 211 809
-148 210 804
-148 209 799
-147 208 794
-146 208 789
-145 207 784
-144 206 779
-150 215 811
-149 214 806
-142 204 765
-141 203 760
-169 246 919
-167 245 912
-166 244 906
-150 219 813
-149 218 808
-148 217 803
-148 216 798
-147 216 793
-153 225 826
-152 224 821
-151 223 816
-143 212 773
-143 211 769
-155 232 839
-154 230 834
-153 229 829
-152 228 823
-151 227 818
-150 227 813
-152 227 815
-151 226 809
-157 237 844
-156 236 839
-155 234 833
-148 223 789
-147 222 784
-146 221 780
-145 220 775
-252 397 1383
-155 238 830
-154 237 825
-153 236 819
-159 246 855
-158 245 849
-157 244 844
-149 232 799
-149 231 794
-148 230 789
-161 252 863
-160 251 858
-159 250 852
-155 247 838
-154 245 833
-153 244 828
-152 243 822
-153 250 842
-152 249 836
-144 237 793
-143 236 788
-143 235 783
-142 234 778
-171 286 948
-170 284 941
-169 283 934
-168 281 927
-151 251 828
-150 250 823
-156 262 859
-155 260 853
-154 259 847
-146 246 802
-145 245 797
-144 244 793
-144 243 788
-157 267 865
-156 266 859
-155 265 854
-154 264 848
-153 262 842
-152 261 837
-158 272 870
-157 271 864
-156 269 858
-149 256 816
-148 255 811
-147 254 806
-146 253 801
-145 252 796
-144 251 791
-224 400 1254
-222 397 1242
-193 344 1076
-155 272 851
-160 283 882
-159 281 876
-158 280 870
-151 267 830
-150 266 825
-149 265 819
-148 264 814
-148 263 809
-161 290 890
-160 288 884
-159 287 878
-158 285 872
-157 284 866
-162 293 894
-161 292 888
-160 291 882
-154 279 844
-153 277 839
-152 276 833
-151 275 828
-150 274 823
-149 272 818
-181 336 1004
-180 334 997
-179 332 989
-160 296 881
-164 304 905
-175 313 934
-174 311 927
-168 299 890
-167 298 884
-166 296 878
-165 295 873
-164 293 867
-163 292 861
-162 291 856
-177 321 943
-176 319 936
-184 336 983
-179 326 951
-177 324 944
-176 322 938
-175 320 931
-169 310 899
-168 308 893
-167 306 887
-166 305 881
-165 303 875
-164 302 870
-163 301 864
-162 299 858
-161 298 853
-148 272 778
-99 175 503
-69 117 338
-107 58 590
-107 58 587
-194 90 812
-119 80 644
-208 91 823
-110 77 597
-98 76 530
-100 79 544
-100 79 544
-96 75 518
-95 75 516
-99 79 536
-105 85 572
-100 81 545
-100 81 543
-88 70 473
-114 94 624
-113 94 621
-109 93 598
-136 99 657
-85 88 541
-186 209 1252
-173 189 1137
-170 196 1137
-177 199 1155
-151 175 1000
-163 191 1087
-80 87 501
-159 188 1060
-158 187 1051
-177 195 1103
-103 121 662
-124 120 681
-125 121 682
-238 153 949
-124 120 675
-134 131 731
-126 123 689
-127 124 692
-126 124 688
-126 124 684
-130 129 710
-129 129 706
-126 126 687
-128 128 698
-127 128 694
-127 127 690
-126 127 686
-125 127 682
-120 121 648
-98 96 517
-78 72 392
-114 119 625
-126 130 684
-125 130 680
-124 130 677
-126 132 687
-126 132 686
-126 132 682
-128 134 692
-127 134 688
-124 131 671
-120 127 650
-120 127 646
-119 126 643
-129 138 698
-128 137 694
-127 137 690
-129 140 701
-128 139 697
-128 139 693
-130 142 704
-129 141 700
-128 141 696
-123 134 662
-122 134 659
-121 134 655
-113 124 606
-130 145 705
-129 145 701
-131 147 712
-130 147 708
-130 147 704
-132 149 715
-131 149 711
-130 148 707
-132 151 718
-132 151 714
-131 150 710
-123 141 664
-132 153 720
-132 153 715
-133 155 724
-131 154 717
-131 154 713
-133 157 724
-132 156 720
-129 153 701
-133 159 727
-133 158 723
-132 158 719
-122 147 669
-113 136 615
-80 93 423
-59 65 299
-131 161 724
-131 161 719
-133 164 731
-132 163 727
-136 165 734
-138 168 746
-137 168 741
-136 167 737
-128 157 692
-128 157 688
-138 171 748
-142 176 769
-138 172 747
-137 171 743
-139 174 755
-139 174 751
-138 173 746
-137 173 742
-139 176 754
-138 175 749
-131 166 706
-130 165 702
-130 164 698
-147 190 801
-140 180 760
-140 180 756
-143 184 771
-142 183 767
-141 182 762
-138 178 741
-143 185 770
-142 185 765
-141 184 761
-134 174 719
-118 152 626
-148 195 800
-144 190 777
-146 194 790
-145 193 785
-223 305 1232
-221 303 1220
-194 277 1089
-201 281 1106
-146 201 791
-145 200 786
-144 199 781
-143 199 776
-143 198 771
-148 206 803
-147 206 798
-146 205 793
-152 214 826
-151 213 821
-150 212 815
-149 211 810
-148 210 805
-148 210 800
-147 209 795
-146 208 790
-145 207 785
-144 206 780
-150 215 812
-149 215 807
-142 204 766
-141 203 761
-169 247 920
-167 245 914
-166 244 907
-150 220 815
-149 219 809
-148 218 804
-148 217 799
-147 216 794
-153 226 828
-152 225 822
-151 224 817
-143 212 775
-143 212 770
-155 232 841
-154 231 835
-153 230 830
-152 229 825
-151 228 819
-150 227 814
-149 226 809
-148 225 804
-154 235 838
-153 234 832
-153 233 827
-145 221 784
-144 220 779
-143 219 774
-143 219 769
-153 237 829
-152 236 824
-151 235 819
-150 234 813
-156 245 848
-155 244 843
-148 231 798
-149 232 800
-149 231 795
-162 254 871
-161 252 865
-160 251 859
-159 250 853
-158 249 848
-157 248 842
-156 247 837
-155 246 831
-161 257 868
-160 256 862
-152 242 815
-151 241 810
-150 240 805
-150 239 800
-181 294 980
-180 293 973
-179 291 965
-160 259 859
-159 258 853
-158 257 847
-165 269 885
-164 267 879
-160 264 865
-151 250 818
-151 249 813
-150 248 808
-144 243 789
-157 268 867
-156 266 861
-155 265 855
-154 264 849
-153 263 844
-152 262 838
-158 272 872
-157 271 866
-156 270 860
-149 257 817
-148 256 812
-147 255 807
-146 253 802
-145 252 797
-144 251 792
-224 401 1257
-222 398 1245
-193 345 1079
-155 273 853
-160 283 883
-159 282 877
-158 280 871
-151 268 831
-150 267 826
-149 265 821
-148 264 816
-148 263 811
-161 290 891
-160 289 885
-159 287 879
-158 286 874
-157 284 868
-162 294 895
-161 292 889
-160 291 883
-154 279 845
-153 278 840
-152 276 835
-151 275 830
-150 274 824
-149 273 819
-181 336 1006
-180 334 999
-179 332 991
-160 296 883
-164 305 907
-163 303 901
-162 302 895
-156 290 860
-155 289 854
-154 288 849
-153 286 844
-153 285 838
-152 284 833
-151 282 828
-165 311 910
-164 310 904
-171 326 949
-166 316 918
-165 314 912
-164 312 906
-163 311 900
-158 301 869
-157 299 863
-167 307 888
-166 305 882
-165 304 877
-164 302 871
-163 301 865
-162 300 860
-161 298 854
-148 272 779
-98 175 503
-69 117 339
-107 58 591
-107 58 588
-175 63 672
-145 63 611
-158 64 609
-108 61 520
-194 88 800
-87 75 557
-124 80 586
-97 76 530
-100 79 547
-100 79 544
-96 75 519
-95 75 516
-95 75 514
-105 85 573
-101 82 550
-96 77 521
-99 81 541
-79 63 421
-113 94 622
-113 94 619
-85 71 456
-135 99 655
-96 91 565
-185 208 1243
-185 207 1239
-169 196 1130
-167 194 1119
-149 174 994
-162 190 1080
-160 189 1071
-79 87 499
-171 193 1090
-154 185 1027
-123 120 678
-123 120 675
-122 120 671
-147 133 756
-141 128 727
-125 124 688
-124 124 684
-124 123 680
-128 128 705
-127 128 701
-124 125 683
-126 127 693
-127 128 695
-127 128 691
-126 127 687
-123 124 669
-98 96 520
-116 119 634
-115 119 629
-108 110 583
-126 130 685
-125 130 681
-124 129 673
-126 132 688
-125 132 684
-125 131 680
-127 134 691
-126 134 687
-123 131 669
-119 127 648
-119 126 645
-118 126 642
-128 138 696
-127 137 692
-127 137 691
-129 140 702
-127 139 695
-128 139 694
-130 142 705
-129 141 701
-128 141 697
-122 134 663
-122 134 659
-121 134 656
-113 124 607
-130 145 706
-129 145 702
-131 148 713
-130 147 709
-130 147 705
-132 149 716
-131 149 712
-130 149 708
-132 151 719
-131 151 715
-131 151 711
-123 141 665
-132 154 721
-132 153 717
-133 155 725
-133 155 721
-132 155 717
-134 157 728
-133 157 724
-130 153 705
-134 159 731
-134 159 727
-133 158 723
-125 149 678
-115 137 622
-82 93 426
-60 65 300
-135 163 733
-134 163 729
-136 166 741
-135 165 736
-134 165 732
-135 167 741
-135 167 736
-134 166 732
-126 156 688
-126 156 684
-136 170 743
-136 171 747
-136 171 743
-133 169 732
-135 172 744
-134 172 740
-133 171 736
-133 171 731
-135 174 743
-134 173 739
-131 166 707
-130 165 703
-130 165 699
-147 190 803
-140 181 762
-140 180 757
-142 183 769
-141 183 765
-140 182 760
-136 177 739
-142 185 768
-141 184 763
-133 174 721
-133 174 717
-138 182 750
-138 182 745
-143 190 775
-145 193 788
-144 193 783
-143 192 778
-222 303 1223
-219 301 1211
-191 274 1073
-145 200 787
-144 200 782
-143 199 777
-142 198 773
-148 207 804
-147 206 799
-140 196 759
-152 214 828
-151 213 822
-150 213 817
-149 212 812
-148 211 806
-148 210 801
-147 209 796
-146 208 791
-145 207 786
-151 217 819
-150 216 814
-149 215 809
-142 204 767
-141 203 762
-169 247 922
-167 246 916
-166 245 909
-150 220 816
-149 219 811
-148 218 806
-148 217 800
-147 216 795
-153 226 829
-152 225 824
-151 224 818
-143 213 776
-143 212 771
-155 232 842
-154 231 837
-153 230 831
-152 229 826
-151 228 821
-150 227 815
-149 226 810
-148 225 805
-154 235 839
-153 234 834
-153 233 828
-145 221 785
-144 221 780
-143 220 775
-153 238 831
-152 237 825
-151 235 820
-150 234 815
-156 245 850
-155 244 844
-148 231 799
-147 230 794
-146 230 790
-159 252 864
-158 251 858
-157 250 853
-156 248 847
-155 247 841
-154 246 836
-153 245 830
-152 244 825
-158 255 861
-157 254 855
-149 241 809
-149 240 804
-148 239 799
-147 238 794
-181 295 982
-180 293 975
-179 291 967
-160 259 860
-159 258 854
-158 257 849
-165 269 887
-164 268 881
-163 266 875
-154 252 827
-153 251 822
-152 250 816
-151 249 811
-166 275 893
-165 274 887
-164 272 881
-163 271 875
-162 270 869
-161 268 864
-167 280 899
-166 278 893
-165 277 886
-157 263 841
-156 262 836
-155 261 830
-151 258 818
-150 257 813
-144 252 793
-224 402 1260
-222 399 1248
-156 274 860
-155 273 854
-160 284 885
-159 282 879
-158 281 873
-151 268 833
-150 267 827
-149 266 822
-148 265 817
-148 263 812
-161 290 893
-160 289 887
-159 288 881
-158 286 875
-157 285 869
-162 294 897
-161 293 891
-160 291 885
-154 279 847
-153 278 841
-152 277 836
-151 276 831
-150 274 826
-149 273 821
-181 337 1008
-180 335 1001
-179 333 993
-160 297 884
-164 305 908
-163 304 902
-162 302 896
-156 291 861
-155 289 856
-154 288 850
-153 287 845
-152 285 840
-152 284 834
-151 283 829
-165 312 912
-164 310 905
-171 326 950
-166 316 920
-165 315 914
-164 313 907
-159 303 876
-158 301 870
-157 300 865
-156 298 859
-155 297 854
-154 295 848
-153 294 843
-152 293 838
-151 291 833
-158 305 871
-119 226 644
-93 172 493
-107 58 591
-107 58 588
-171 80 731
-81 59 466
-183 87 775
-152 63 592
-133 81 665
-86 73 548
-126 82 598
-96 76 529
-100 79 547
-100 79 545
-100 79 542
-99 79 540
-101 81 551
-101 81 549
-103 84 567
-99 81 545
-99 81 543
-101 83 551
-98 81 535
-111 94 615
-110 94 612
-110 94 609
-97 68 458
-130 98 640
-183 207 1233
-181 205 1221
-166 194 1112
-164 193 1102
-148 174 988
-143 168 952
-159 189 1064
-158 188 1055
-79 87 497
-153 184 1018
-94 111 606
-122 120 672
-129 127 712
-125 124 693
-125 124 689
-124 124 685
-123 123 681
-128 129 706
-127 128 702
-124 125 684
-126 128 694
-125 127 691
-124 127 687
-126 127 688
-98 96 523
-112 114 609
-119 123 652
-115 119 630
-114 119 626
-124 130 681
-123 129 677
-122 128 669
-124 132 684
-123 131 680
-123 131 676
-124 133 687
-124 133 683
-123 131 670
-119 127 649
-119 127 646
-118 126 642
-127 138 697
-127 137 693
-126 137 689
-128 140 700
-127 139 696
-127 139 692
-128 142 703
-128 141 699
-127 141 695
-121 134 661
-121 134 658
-120 134 655
-112 124 606
-129 145 705
-128 145 701
-130 147 712
-129 147 708
-129 146 704
-131 149 715
-130 149 711
-129 148 707
-131 151 718
-131 151 716
-131 151 712
-123 141 666
-132 154 722
-132 153 718
-133 156 726
-132 155 722
-132 155 718
-131 154 714
-133 157 725
-130 153 706
-134 160 732
-134 159 728
-133 159 724
-125 149 679
-115 137 622
-82 93 427
-60 65 301
-135 163 734
-134 163 730
-136 166 742
-135 165 737
-134 165 733
-136 168 745
-136 167 741
-135 167 736
-127 157 692
-127 157 688
-137 171 747
-138 172 751
-137 172 747
-136 171 742
-138 174 754
-137 174 750
-135 173 743
-135 172 738
-137 175 750
-136 175 746
-129 165 703
-128 164 699
-127 164 695
-145 189 797
-138 180 756
-137 179 752
-137 181 758
-136 181 754
-133 176 733
-132 175 729
-137 183 757
-136 182 752
-129 172 711
-128 172 707
-128 171 703
-133 180 735
-137 181 742
-113 148 605
-144 193 784
-143 192 779
-142 191 775
-60 72 296
-215 298 1195
-213 296 1183
-197 279 1091
-144 200 783
-143 199 779
-142 198 774
-148 207 806
-147 206 800
-140 196 760
-152 215 829
-151 214 824
-150 213 818
-149 212 813
-148 211 808
-148 210 803
-147 209 798
-146 208 792
-145 208 788
-151 217 820
-150 216 815
-149 215 810
-142 204 768
-141 204 764
-169 247 924
-168 246 917
-166 245 911
-150 220 817
-149 219 812
-148 218 807
-148 217 802
-147 216 797
-153 226 830
-152 225 825
-151 224 820
-143 213 777
-142 212 772
-155 233 844
-154 231 838
-153 230 833
-152 229 827
-151 228 822
-150 227 817
-149 226 811
-148 226 806
-154 236 841
-153 235 835
-153 234 830
-145 222 786
-144 221 781
-143 220 777
-153 238 832
-152 237 827
-151 236 821
-150 235 816
-156 246 851
-155 244 846
-148 232 801
-147 231 796
-146 230 791
-159 252 866
-158 251 860
-157 250 854
-156 249 848
-155 248 843
-154 247 837
-153 245 832
-152 244 826
-158 256 862
-157 254 857
-149 241 811
-149 240 806
-148 239 800
-147 238 796
-178 292 974
-177 291 966
-175 289 959
-157 258 854
-156 256 848
-155 255 842
-162 267 880
-161 266 874
-160 265 868
-151 251 821
-150 250 816
-150 248 811
-149 247 805
-163 273 886
-165 274 889
-164 273 883
-163 271 877
-162 270 871
-161 269 865
-167 280 900
-166 279 894
-165 277 888
-157 264 843
-156 262 837
-155 261 832
-154 260 826
-153 259 821
-242 421 1327
-240 417 1313
-237 414 1300
-165 282 886
-163 280 880
-169 291 912
-168 290 906
-167 288 900
-159 275 857
-158 274 851
-157 272 846
-157 271 841
-156 270 835
-171 298 921
-170 297 914
-168 295 908
-167 294 902
-163 290 887
-168 300 916
-167 298 909
-166 297 903
-159 284 864
-158 283 858
-152 277 838
-151 276 832
-150 275 827
-149 273 822
-181 337 1010
-180 335 1003
-179 333 995
-160 297 886
-164 306 910
-163 304 904
-162 303 898
-156 291 863
-155 290 857
-154 289 852
-153 287 846
-152 286 841
-152 285 836
-166 314 920
-165 312 913
-164 311 907
-171 327 952
-166 317 922
-165 315 915
-164 313 909
-159 303 877
-158 301 872
-157 300 866
-156 299 861
-155 297 855
-154 296 850
-153 294 844
-152 293 839
-151 292 834
-158 306 872
-119 226 645
-93 172 493
-105 58 588
-143 59 601
-147 63 617
-148 85 715
-141 81 675
-124 80 590
-98 78 540
-96 76 529
-100 79 548
-98 79 542
-94 75 517
-94 75 515
-99 81 549
-101 83 561
-103 84 568
-102 84 565
-99 81 544
-98 81 541
-99 83 548
-96 80 531
-79 63 418
-110 94 610
-109 93 607
-80 67 426
-133 98 646
-84 88 533
-180 205 1212
-31 128 653
-164 193 1105
-163 192 1095
-165 196 1111
-139 163 921
-117 136 768
-128 150 843
-78 87 494
-154 185 1031
-153 184 1023
-151 182 1003
-131 130 728
-125 124 694
-125 124 690
-124 124 686
-123 124 682
-128 129 707
-125 126 689
-124 125 685
-126 128 695
-125 127 692
-122 125 674
-99 97 526
-123 126 675
-122 126 672
-119 123 655
-116 119 633
-115 119 629
-124 130 684
-124 130 681
-122 129 672
-125 132 687
-124 132 683
-124 131 680
-125 134 690
-125 134 686
-122 130 669
-118 127 648
-118 126 644
-117 126 641
-126 138 696
-126 137 692
-124 136 685
-126 139 696
-125 139 692
-125 138 688
-126 141 699
-126 141 695
-125 140 691
-121 134 662
-121 134 659
-120 134 655
-112 124 606
-129 145 706
-128 145 702
-130 147 713
-129 147 709
-129 147 705
-130 149 716
-130 149 712
-129 149 708
-131 151 719
-130 151 715
-130 150 710
-122 141 664
-131 153 720
-131 153 716
-132 155 725
-131 155 720
-131 154 716
-130 154 712
-132 157 723
-129 153 704
-134 160 734
-134 159 729
-133 159 725
-125 149 679
-115 137 623
-82 93 427
-60 65 301
-135 163 735
-134 163 731
-136 166 743
-135 165 739
-134 165 734
-136 168 746
-136 168 742
-135 167 737
-127 157 693
-127 157 689
-137 171 749
-138 172 752
-137 172 748
-136 171 743
-138 175 756
-137 174 751
-137 173 747
-133 169 726
-138 176 754
-137 175 750
-130 166 706
-129 165 702
-128 165 698
-146 190 802
-139 180 761
-138 180 756
-140 183 769
-140 183 764
-139 182 759
-141 186 772
-140 185 767
-139 184 763
-131 174 718
-130 173 714
-130 173 709
-135 181 742
-147 198 808
-146 197 802
-109 146 595
-138 190 768
-138 189 763
-137 188 758
-58 72 294
-204 290 1156
-203 288 1146
-201 286 1135
-138 197 767
-138 196 762
-143 204 793
-142 204 788
-135 194 749
-147 212 816
-146 211 810
-145 210 805
-144 209 800
-143 208 795
-142 207 790
-142 207 785
-141 206 780
-140 205 775
-145 214 807
-144 213 802
-144 212 797
-137 202 757
-136 201 752
-162 244 907
-161 242 901
-160 241 894
-150 220 819
-149 219 813
-148 219 808
-148 218 803
-147 217 798
-153 227 832
-152 226 826
-151 225 821
-143 213 778
-156 234 851
-155 233 845
-154 232 840
-153 231 834
-152 230 829
-151 229 823
-150 228 818
-149 227 813
-148 226 808
-154 236 842
-153 235 837
-146 223 792
-145 222 788
-144 221 783
-143 220 778
-153 238 834
-152 237 828
-151 236 823
-150 235 818
-156 246 853
-155 245 847
-148 232 802
-147 231 797
-146 230 792
-159 253 867
-158 252 861
-157 250 855
-156 249 850
-155 248 844
-154 247 839
-153 246 833
-159 257 870
-158 256 864
-157 255 858
-149 241 812
-149 240 807
-148 239 802
-147 238 797
-178 293 976
-177 291 968
-175 290 961
-157 258 855
-156 257 849
-155 256 844
-162 268 881
-161 266 875
-160 265 869
-151 251 822
-150 250 817
-150 249 812
-149 248 807
-163 273 888
-162 272 882
-161 271 876
-160 269 870
-159 268 864
-158 267 859
-164 278 893
-163 277 887
-162 276 881
-154 262 836
-153 261 831
-152 260 826
-151 258 820
-150 257 815
-237 417 1313
-235 413 1300
-237 415 1303
-165 282 888
-163 281 882
-169 292 914
-168 290 908
-167 289 901
-159 275 859
-158 274 853
-157 273 847
-157 271 842
-156 270 837
-171 299 923
-170 297 916
-168 296 910
-167 294 903
-166 293 897
-171 303 926
-170 301 920
-169 300 913
-162 287 873
-161 286 868
-160 284 862
-159 283 856
-158 281 851
-157 280 845
-192 347 1044
-191 345 1036
-189 343 1028
-169 305 913
-174 314 938
-172 312 931
-171 311 925
-165 299 888
-161 295 874
-160 293 869
-159 292 863
-158 291 857
-157 289 852
-172 320 939
-171 318 932
-170 316 926
-171 327 954
-166 317 923
-165 316 917
-164 314 911
-159 303 879
-158 302 873
-157 300 867
-156 299 862
-155 298 856
-154 296 851
-153 295 846
-152 293 840
-151 292 835
-158 306 873
-119 226 646
-66 116 335
-155 44 867
-106 58 591
-222 78 865
-89 60 486
-115 80 638
-140 81 678
-125 82 600
-97 76 532
-99 79 545
-98 79 543
-94 75 517
-94 75 515
-99 81 549
-103 85 571
-103 84 568
-99 81 547
-100 83 554
-101 83 554
-99 83 549
-99 83 546
-96 81 530
-96 81 528
-109 94 608
-109 93 605
-108 93 602
-82 71 446
-89 89 544
-178 204 1204
-179 204 1200
-162 191 1088
-156 184 1042
-111 129 729
-199 160 973
-237 193 1169
-235 192 1158
-78 87 491
-152 184 1016
-151 183 1008
-153 183 1008
-99 120 645
-125 124 691
-124 124 687
-123 124 683
-128 129 708
-125 126 690
-125 126 688
-124 126 685
-124 125 681
-99 97 528
-123 127 680
-123 126 676
-122 126 672
-116 120 637
-116 119 633
-107 110 584
-124 130 685
-124 130 682
-122 129 673
-125 132 688
-124 132 684
-124 132 681
-125 134 691
-125 134 687
-122 131 670
-118 127 649
-118 127 645
-117 126 642
-126 138 697
-126 137 693
-125 136 687
-127 140 699
-126 139 696
-126 139 692
-127 141 702
-127 141 698
-126 141 695
-120 134 661
-120 134 657
-118 133 652
-110 123 603
-127 144 702
-126 144 698
-128 147 708
-127 146 704
-126 146 700
-128 149 711
-128 148 707
-127 146 694
-129 151 714
-128 150 710
-127 150 706
-120 140 661
-131 154 721
-131 153 717
-132 156 726
-131 155 722
-131 155 717
-133 158 729
-132 157 725
-129 153 705
-133 160 732
-132 159 728
-132 159 723
-124 149 678
-114 137 622
-81 93 426
-60 65 301
-133 163 734
-133 163 729
-135 166 741
-134 165 737
-133 165 732
-135 168 744
-135 167 740
-134 167 735
-126 157 691
-126 156 687
-137 171 750
-138 173 754
-137 172 749
-136 171 745
-138 175 757
-137 174 752
-137 174 748
-133 169 727
-138 176 755
-137 176 751
-130 166 707
-129 165 703
-128 165 699
-146 190 803
-139 181 762
-138 180 757
-140 184 770
-140 183 765
-139 182 761
-141 186 773
-140 185 769
-139 184 764
-132 174 721
-131 174 717
-131 173 713
-145 195 798
-141 190 775
-141 189 771
-143 193 784
-131 175 713
-119 158 642
-140 190 769
-138 189 761
-59 72 295
-137 188 752
-208 291 1160
-185 269 1044
-143 205 794
-142 204 789
-135 194 750
-147 212 817
-146 211 812
-145 210 807
-144 209 801
-143 209 796
-142 208 791
-142 207 786
-141 206 782
-140 205 777
-145 214 809
-144 213 804
-144 213 798
-137 202 758
-163 245 915
-162 244 909
-161 243 902
-160 242 896
-145 217 806
-144 217 801
-143 216 796
-142 215 791
-142 214 786
-147 223 818
-146 222 813
-145 222 808
-138 211 767
-150 231 837
-149 230 831
-148 229 826
-148 228 821
-147 227 815
-146 226 810
-145 225 805
-144 224 800
-143 223 795
-149 233 828
-153 235 838
-146 223 794
-145 222 789
-144 221 784
-143 221 779
-153 239 835
-152 238 830
-151 236 824
-150 235 819
-156 246 854
-155 245 849
-148 232 803
-147 231 798
-146 230 793
-159 253 869
-158 252 863
-157 251 857
-156 250 851
-155 248 846
-154 247 840
-153 246 835
-159 258 871
-158 256 865
-157 255 860
-149 242 813
-149 241 808
-148 240 803
-147 239 798
-178 293 978
-177 292 970
-175 290 963
-157 258 857
-156 257 851
-155 256 845
-162 268 883
-161 267 877
-160 265 871
-151 251 824
-150 250 818
-150 249 813
-149 248 808
-163 274 890
-162 273 884
-161 271 878
-160 270 872
-159 269 866
-158 267 860
-164 279 895
-163 277 889
-162 276 883
-154 262 838
-153 261 832
-152 260 827
-151 259 822
-150 258 817
-237 418 1316
-235 414 1303
-233 411 1290
-162 280 881
-161 279 875
-166 290 907
-165 288 901
-164 287 894
-157 274 852
-156 272 847
-155 271 841
-154 270 836
-153 269 830
-168 297 915
-166 295 909
-165 294 903
-164 292 897
-163 291 890
-168 301 919
-170 302 921
-169 300 915
-162 287 875
-161 286 869
-160 285 863
-159 283 858
-158 282 852
-157 281 847
-192 348 1046
-191 346 1038
-189 344 1030
-169 305 914
-174 314 940
-172 313 933
-171 311 927
-165 299 890
-164 298 884
-163 296 878
-162 295 872
-161 293 867
-160 292 861
-175 323 949
-174 321 943
-173 319 936
-172 318 929
-176 326 951
-174 324 944
-173 322 938
-167 311 904
-166 309 898
-165 308 892
-164 306 886
-163 305 881
-162 303 875
-161 302 869
-158 298 856
-157 297 851
-163 311 890
-123 229 656
-67 117 338
-166 96 962
-105 58 590
-100 67 551
-108 74 598
-113 78 630
-115 80 639
-140 81 679
-122 80 585
-98 76 533
-100 79 549
-98 79 543
-98 79 541
-97 79 539
-105 85 578
-103 85 572
-99 82 550
-99 82 547
-100 83 554
-100 83 552
-99 83 549
-99 83 547
-100 84 554
-96 81 529
-95 81 526
-95 81 524
-108 93 603
-108 93 600
-239 223 1399
-82 71 445
-131 98 638
-94 90 552
-175 202 1184
-30 127 644
-160 191 1081
-159 190 1071
-144 171 963
-110 128 722
-208 168 1019
-233 191 1150
-77 87 489
-151 183 1010
-149 182 1002
-148 181 994
-147 180 986
-148 180 984
-124 124 688
-123 124 684
-128 129 709
-124 126 691
-125 126 689
-124 126 686
-93 115 600
-122 127 678
-122 126 675
-121 126 671
-115 120 635
-115 119 632
-94 96 507
-123 130 684
-123 130 680
-121 129 672
-125 132 689
-124 132 685
-124 132 682
-125 134 692
-125 134 688
-122 131 671
-118 127 649
-118 127 646
-117 126 643
-126 138 698
-126 137 694
-125 137 687
-127 140 700
-126 139 697
-126 139 693
-127 142 703
-127 141 699
-126 141 695
-120 134 662
-120 134 658
-119 134 655
-111 124 606
-128 145 705
-127 145 701
-129 147 712
-128 147 708
-127 147 704
-129 149 715
-129 149 711
-128 148 707
-130 151 718
-129 151 714
-128 150 710
-121 141 664
-130 153 719
-137 163 761
-131 155 724
-129 154 717
-128 154 713
-130 157 724
-130 156 720
-129 156 716
-131 159 727
-130 158 723
-132 159 724
-124 149 679
-114 137 623
-81 93 427
-60 65 301
-133 163 735
-133 163 730
-135 166 742
-134 165 738
-133 165 734
-135 168 745
-134 167 741
-134 167 737
-126 157 692
-126 157 688
-136 171 748
-136 172 752
-136 172 747
-135 171 743
-137 174 755
-136 174 750
-135 173 746
-137 177 758
-137 176 754
-136 175 749
-129 165 706
-128 165 702
-118 151 642
-145 190 801
-139 181 763
-138 180 759
-140 184 771
-140 183 766
-139 182 762
-141 186 775
-140 185 770
-139 185 765
-132 175 723
-131 174 718
-131 174 714
-149 200 819
-141 190 777
-141 189 772
-143 193 785
-142 192 780
-130 175 710
-118 158 639
-136 185 746
-135 184 742
-138 189 756
-137 188 752
-206 290 1152
-204 288 1142
-142 204 791
-135 194 751
-147 212 818
-146 211 813
-145 211 808
-144 210 803
-143 209 798
-142 208 793
-142 207 788
-141 206 783
-140 206 778
-145 215 810
-144 214 805
-144 213 800
-137 202 759
-164 246 917
-162 244 911
-161 243 904
-160 242 898
-145 218 807
-144 217 802
-143 216 797
-142 215 792
-142 214 787
-147 224 820
-146 223 814
-139 212 772
-138 211 768
-150 231 838
-149 230 833
-148 229 827
-148 228 822
-147 227 817
-146 226 811
-145 225 806
-144 224 801
-143 223 796
-149 233 830
-148 232 824
-141 220 781
-140 219 777
-139 219 772
-138 218 767
-148 235 821
-147 234 816
-146 233 811
-152 244 846
-151 243 840
-155 245 850
-148 233 805
-147 232 800
-146 231 795
-159 253 870
-158 252 864
-157 251 858
-156 250 853
-155 249 847
-154 248 842
-153 246 836
-159 258 873
-158 257 867
-157 256 861
-149 242 815
-149 241 810
-148 240 804
-147 239 799
-178 294 979
-177 292 972
-176 291 965
-157 259 858
-156 258 852
-155 256 847
-162 268 885
-161 267 879
-160 266 873
-151 252 825
-150 251 820
-150 250 815
-149 248 809
-163 274 891
-162 273 885
-161 272 879
-160 270 873
-159 269 867
-158 268 861
-164 279 896
-163 278 890
-162 276 884
-154 263 839
-153 261 834
-152 260 828
-151 259 823
-150 258 818
-237 419 1320
-235 415 1306
-233 412 1293
-162 281 883
-161 279 877
-166 290 909
-165 289 902
-164 287 896
-157 274 854
-156 273 848
-155 271 843
-154 270 837
-153 269 832
-168 297 917
-166 296 911
-165 294 904
-164 293 898
-163 291 892
-168 301 921
-167 300 914
-166 298 908
-159 285 868
-158 284 863
-157 283 857
-156 281 851
-155 280 846
-154 279 841
-189 345 1038
-187 343 1030
-186 341 1022
-166 303 907
-170 312 933
-169 311 926
-171 312 928
-165 300 891
-164 298 885
-163 297 879
-162 295 874
-161 294 868
-160 292 862
-175 323 951
-174 321 944
-173 320 938
-177 328 960
-176 326 953
-174 324 946
-173 323 939
-167 312 906
-166 310 900
-174 326 944
-164 307 888
-163 305 882
-162 304 876
-161 302 871
-160 301 865
-159 299 860
-159 299 857
-125 231 661
-68 117 339
-105 58 591
-164 64 634
-225 90 879
-108 74 599
-113 78 631
-110 77 616
-141 81 683
-97 79 543
-100 79 547
-99 79 545
-94 75 516
-99 81 551
-103 85 572
-99 82 550
-99 82 548
-100 83 555
-100 83 552
-99 83 550
-97 81 534
-100 84 554
-99 84 552
-95 81 527
-95 81 525
-95 81 522
-107 93 600
-106 93 596
-106 93 593
-232 219 1362
-77 67 420
-103 92 573
-99 92 564
-173 201 1175
-174 201 1172
-158 189 1064
-157 188 1055
-123 146 818
-135 161 899
-114 135 752
-118 141 783
-126 99 598
-149 182 1004
-148 182 996
-147 181 988
-149 181 991
-145 179 973
-98 119 637
-128 129 710
-121 122 671
-104 104 571
-93 116 603
-93 115 600
-94 117 608
-93 117 605
-93 117 603
-89 112 574
-89 111 571
-74 91 467
-123 130 685
-123 130 681
-121 129 673
-124 132 688
-123 132 684
-123 131 680
-124 134 690
-124 134 687
-121 130 669
-117 127 648
-117 126 645
-116 126 641
-125 138 696
-125 137 692
-124 136 686
-126 139 699
-126 139 698
-125 139 694
-127 142 704
-127 141 700
-126 141 696
-120 134 663
-120 134 659
-119 134 656
-111 124 607
-128 145 706
-127 145 702
-129 148 713
-128 147 709
-127 147 705
-129 149 716
-129 149 712
-128 149 708
-130 151 719
-129 151 715
-128 151 711
-121 141 665
-130 154 720
-129 153 716
-131 155 725
-130 155 721
-129 154 717
-131 157 728
-131 157 724
-130 156 720
-132 159 731
-131 159 727
-130 158 723
-123 149 677
-113 137 622
-81 93 426
-59 65 300
-132 163 733
-130 162 726
-132 165 737
-132 165 733
-131 164 729
-133 167 741
-132 167 736
-131 166 732
-124 156 688
-123 156 684
-133 170 743
-136 172 753
-136 172 748
-135 171 744
-137 175 756
-136 174 752
-135 173 747
-137 177 759
-137 176 755
-136 176 750
-129 166 707
-128 165 703
-118 151 643
-145 190 802
-138 181 761
-137 180 757
-139 183 769
-138 183 765
-138 182 760
-140 186 773
-139 185 768
-138 184 763
-131 174 721
-131 174 719
-131 174 715
-149 200 820
-140 189 774
-141 189 773
-143 193 786
-142 192 781
-141 192 776
-137 187 754
-122 164 662
-135 185 743
-138 189 758
-134 183 734
-206 291 1155
-204 289 1144
-202 287 1134
-201 285 1124
-135 194 752
-147 213 820
-146 212 814
-145 211 809
-144 210 804
-143 209 799
-142 208 794
-141 207 789
-141 207 784
-140 206 779
-145 215 811
-144 214 806
-144 213 801
-137 203 760
-164 246 919
-162 245 912
-161 244 906
-160 242 899
-145 218 808
-144 217 803
-143 216 798
-142 215 793
-141 214 788
-147 224 821
-146 223 816
-139 212 774
-138 211 769
-150 231 840
-149 230 834
-148 229 829
-148 228 823
-147 227 818
-146 226 813
-145 225 808
-144 224 802
-150 234 837
-149 233 831
-148 232 826
-141 221 783
-140 220 778
-139 219 773
-138 218 768
-148 236 823
-147 235 817
-146 234 812
-152 244 847
-151 243 841
-150 242 836
-142 230 792
-142 229 787
-141 228 782
-153 250 855
-152 249 850
-151 247 844
-150 246 838
-149 245 833
-149 244 828
-148 243 822
-154 254 858
-153 253 852
-152 252 847
-144 239 802
-143 238 797
-143 237 792
-142 236 787
-171 289 961
-177 293 974
-176 291 967
-157 259 860
-156 258 854
-155 257 848
-162 269 886
-161 268 880
-160 266 874
-151 252 826
-150 251 821
-150 250 816
-149 249 811
-163 275 893
-162 273 887
-161 272 881
-160 271 875
-159 269 869
-158 268 863
-164 280 898
-163 278 892
-162 277 886
-154 263 841
-153 262 835
-152 261 830
-151 259 824
-150 258 819
-237 420 1323
-235 416 1310
-233 413 1297
-162 281 884
-161 280 878
-166 291 910
-165 289 904
-164 288 898
-157 274 855
-156 273 849
-155 272 844
-154 271 839
-153 269 833
-168 298 919
-167 296 912
-165 295 906
-164 293 900
-163 292 894
-168 302 922
-167 300 916
-166 299 910
-159 286 870
-158 285 864
-157 283 858
-156 282 853
-155 280 847
-154 279 842
-189 346 1040
-187 344 1032
-186 342 1024
-172 315 941
-170 313 934
-169 311 928
-168 310 921
-162 298 885
-161 296 879
-160 295 873
-159 293 867
-158 292 862
-157 291 856
-172 321 944
-171 319 937
-170 318 931
-174 326 952
-172 324 946
-171 322 939
-170 320 932
-164 310 899
-163 308 893
-174 326 945
-164 307 889
-163 306 884
-162 304 878
-161 303 872
-160 301 866
-159 300 861
-159 300 859
-125 231 662
-68 117 340
-105 58 591
-221 70 869
-91 62 502
-109 76 610
-110 77 614
-108 77 609
-97 79 542
-96 79 539
-99 79 543
-105 85 579
-101 82 557
-98 81 548
-100 82 552
-101 83 559
-101 83 556
-98 83 547
-99 84 554
-98 84 552
-96 84 546
-99 84 550
-95 81 525
-95 81 523
-91 80 515
-107 93 598
-106 93 595
-105 93 591
-230 218 1351
-100 73 476
-99 92 562
-172 200 1167
-170 199 1156
-157 188 1058
-155 187 1049
-125 149 834
-134 161 895
-108 128 712
-118 140 779
-149 183 1006
-148 182 998
-147 181 990
-146 180 982
-97 119 634
-93 114 602
-106 120 638
-119 124 669
-119 124 665
-118 124 662
-120 126 672
-119 126 668
-113 119 633
-113 119 629
-105 110 580
-121 130 681
-121 129 677
-117 128 664
-120 131 679
-119 131 675
-119 130 671
-120 133 681
-116 131 668
-106 126 634
-103 122 615
-90 118 581
-89 118 579
-96 127 623
-95 127 620
-95 127 616
-96 129 625
-96 128 622
-124 139 692
-126 141 703
-126 141 699
-125 141 695
-119 134 661
-119 134 658
-118 134 654
-110 124 605
-127 145 705
-126 145 701
-128 147 711
-127 147 707
-126 146 703
-128 149 714
-128 149 710
-128 149 709
-130 152 720
-129 151 716
-128 151 712
-121 141 666
-130 154 722
-129 153 717
-131 156 726
-130 155 722
-129 155 718
-131 158 729
-131 157 725
-130 157 721
-132 160 732
-131 159 728
-130 159 724
-123 149 678
-113 137 622
-80 93 426
-59 65 301
-132 163 734
-131 163 730
-133 166 742
-133 165 737
-132 165 733
-134 168 745
-133 167 740
-133 167 736
-125 157 691
-124 157 688
-134 171 747
-135 172 751
-134 172 747
-134 171 742
-136 174 754
-135 174 750
-134 173 745
-135 176 754
-134 175 750
-134 175 745
-126 165 702
-126 164 698
-116 151 640
-136 180 761
-135 180 756
-137 180 758
-139 184 770
-138 183 766
-138 182 761
-140 186 774
-139 185 769
-138 184 764
-131 175 722
-130 174 718
-130 173 714
-141 190 781
-140 190 776
-139 189 771
-142 193 784
-141 192 779
-140 191 774
-136 186 752
-130 178 716
-112 151 609
-183 258 1030
-133 183 732
-135 187 747
-202 288 1140
-200 286 1130
-199 284 1120
-197 282 1110
-148 214 823
-147 213 818
-147 212 813
-146 211 807
-145 210 802
-144 209 797
-143 208 792
-142 208 787
-148 217 820
-147 216 815
-140 205 773
-137 203 762
-164 246 921
-162 245 914
-161 244 908
-160 243 901
-145 218 810
-144 217 805
-143 217 799
-142 216 794
-141 215 789
-147 224 822
-146 223 817
-139 212 775
-138 211 770
-150 232 841
-149 231 836
-148 230 830
-148 229 825
-147 228 819
-146 227 814
-145 226 809
-144 225 804
-150 235 838
-149 234 833
-148 233 827
-141 221 784
-140 220 779
-139 219 774
-138 218 770
-148 236 824
-147 235 819
-146 234 814
-152 245 849
-151 243 843
-150 242 837
-142 230 793
-142 229 788
-141 228 784
-153 250 857
-152 249 851
-151 248 845
-150 247 840
-149 246 834
-149 244 829
-148 243 824
-154 255 859
-153 253 854
-152 252 848
-144 239 803
-143 238 798
-142 237 793
-172 291 970
-171 290 963
-170 288 956
-169 286 949
-151 255 845
-150 254 840
-150 253 834
-156 265 871
-155 264 865
-154 262 859
-146 249 813
-145 247 808
-144 246 803
-143 245 798
-157 271 877
-156 269 871
-155 268 866
-160 271 876
-159 270 870
-158 268 864
-164 280 900
-163 279 894
-155 265 847
-154 263 842
-153 262 836
-152 261 831
-151 260 826
-150 259 821
-238 421 1327
-235 417 1313
-233 414 1300
-162 282 886
-167 293 918
-166 291 912
-165 290 906
-158 276 862
-157 275 857
-156 273 851
-155 272 845
-154 271 840
-153 270 835
-168 298 920
-167 297 914
-165 295 908
-164 294 901
-163 292 895
-168 302 924
-167 301 918
-166 299 911
-159 286 871
-158 285 866
-157 284 860
-156 282 854
-155 281 849
-154 280 843
-189 347 1042
-187 345 1034
-186 342 1026
-172 315 943
-170 313 936
-169 312 929
-168 310 923
-162 298 886
-161 297 880
-160 295 875
-159 294 869
-158 292 863
-157 291 858
-172 322 946
-171 320 939
-170 318 932
-174 326 954
-172 324 947
-171 323 941
-170 321 934
-164 310 901
-163 308 895
-171 324 938
-161 305 883
-160 304 877
-159 302 872
-158 301 866
-158 300 860
-157 298 855
-156 298 853
-96 175 503
-67 117 339
-105 58 592
-175 68 676
-143 101 815
-109 76 611
-109 77 615
-96 79 537
-98 82 553
-98 82 551
-124 86 604
-123 86 601
-98 83 553
-98 83 550
-96 81 539
-96 81 536
-95 81 530
-94 81 527
-94 81 525
-97 84 545
-97 84 542
-98 86 554
-98 86 553
-105 93 592
-103 93 588
-103 93 585
-103 93 582
-80 71 440
-129 98 627
-92 90 544
-169 198 1148
-167 197 1138
-154 187 1042
-149 180 1003
-147 179 995
-155 190 1048
-112 134 741
-121 147 808
-76 87 483
-148 181 990
-145 180 977
-144 179 969
-171 191 1054
-143 178 959
-69 65 361
-121 125 676
-120 125 672
-120 124 669
-121 127 679
-121 126 675
-120 126 671
-114 120 636
-114 119 632
-105 110 583
-122 130 684
-122 130 680
-120 129 672
-123 132 687
-122 132 683
-121 131 679
-123 134 690
-123 133 686
-119 130 666
-115 126 645
-115 126 642
-114 126 639
-123 137 693
-122 137 689
-122 136 685
-124 139 696
-121 138 687
-120 138 683
-122 140 693
-121 140 690
-117 138 676
-112 132 644
-104 129 624
-104 129 621
-85 116 549
-97 134 629
-96 133 626
-97 136 635
-97 135 632
-96 135 629
-98 137 637
-97 137 634
-97 137 631
-129 151 718
-128 151 714
-127 150 710
-120 141 664
-129 153 720
-128 153 716
-130 155 724
-129 155 720
-128 154 716
-130 157 727
-129 157 723
-129 156 719
-132 160 733
-131 159 729
-130 159 725
-123 149 679
-100 119 542
-80 93 427
-59 65 301
-132 163 735
-131 163 731
-133 166 743
-133 165 738
-132 165 734
-134 168 746
-133 168 741
-133 167 737
-125 157 692
-124 157 689
-134 171 748
-135 172 752
-134 172 748
-134 171 743
-136 174 755
-135 174 751
-134 173 746
-136 177 759
-135 176 754
-135 175 750
-127 166 706
-127 165 702
-117 151 643
-137 181 765
-137 180 761
-136 180 756
-138 183 768
-137 183 764
-136 182 759
-139 185 772
-138 185 767
-136 184 759
-129 174 717
-128 173 713
-127 173 709
-138 189 775
-138 189 771
-137 188 766
-139 192 779
-138 191 774
-137 190 769
-136 186 754
-141 194 784
-140 194 779
-140 193 774
-133 183 733
-123 168 673
-108 147 588
-146 204 810
-199 284 1122
-197 283 1112
-191 278 1089
-147 213 819
-147 212 814
-146 211 809
-145 210 804
-144 209 798
-143 209 793
-142 208 788
-148 217 821
-147 216 816
-140 205 774
-139 205 769
-167 249 932
-166 248 925
-164 246 918
-163 245 912
-147 220 818
-147 219 813
-146 218 808
-145 218 803
-144 217 798
-150 226 831
-149 225 826
-141 214 783
-141 213 778
-150 232 843
-149 231 837
-148 230 832
-147 229 826
-147 228 821
-146 227 816
-145 226 810
-144 225 805
-150 235 839
-149 234 834
-148 233 828
-141 221 785
-140 220 780
-139 219 776
-138 219 771
-240 393 1371
-148 236 825
-147 235 820
-146 234 815
-152 245 850
-151 244 844
-150 243 839
-142 230 795
-142 229 790
-154 252 864
-153 250 858
-152 249 853
-151 248 847
-150 247 841
-149 246 836
-148 245 830
-148 244 825
-154 255 861
-153 254 855
-145 240 809
-144 239 804
-143 238 799
-142 237 794
-172 292 972
-171 290 965
-170 288 957
-169 287 950
-151 256 847
-150 255 841
-150 253 836
-156 265 872
-155 264 866
-147 250 820
-146 249 814
-145 248 809
-144 247 804
-158 272 885
-157 271 879
-156 270 873
-155 268 867
-154 267 861
-153 266 856
-152 265 850
-158 276 884
-157 274 878
-149 261 833
-148 260 828
-148 259 823
-147 257 818
-146 256 813
-145 255 807
-227 412 1295
-225 408 1283
-223 405 1270
-162 282 887
-167 293 920
-166 291 914
-165 290 907
-158 276 864
-157 275 858
-156 274 852
-155 273 847
-154 271 841
-169 300 929
-168 299 922
-167 297 916
-165 296 909
-164 294 903
-169 304 932
-168 303 926
-167 301 919
-160 288 879
-159 287 873
-158 285 867
-157 284 861
-156 283 856
-155 281 850
-154 280 845
-189 347 1044
-187 345 1036
-167 306 919
-172 316 944
-170 314 938
-169 312 931
-168 311 925
-162 299 888
